NORM_ASCII
770 1536
  -0.1062520   -0.0146482   -0.0154174   -0.0663712   -0.1359583   -0.9884888
  -0.1160315   -0.0019393   -0.0141250   -0.1824898   -0.0688415   -0.9807947
  -0.1222627    0.0108572   -0.0147061   -0.8347033    0.1223864   -0.5369283
  -0.1260092    0.0001987   -0.0081597   -0.8066294    0.1735738    0.5649966
  -0.0989430   -0.0410378   -0.0087665    0.0296410   -0.1988419   -0.9795832
  -0.0877204   -0.0614340   -0.0047717   -0.0341738   -0.1175174   -0.9924827
  -0.0739352   -0.0589036   -0.0068769   -0.3381048   -0.0405858   -0.9402329
  -0.0618069   -0.0609877   -0.0126216    0.1856689   -0.5815902   -0.7920101
  -0.0631164   -0.0578451   -0.0136508   -0.4080899   -0.1752142   -0.8959702
  -0.0528194   -0.0538082   -0.0145993    0.4040767   -0.7671198   -0.4982461
  -0.0511329   -0.0551924   -0.0115433    0.2704536   -0.7308275   -0.6266945
  -0.0462001   -0.0544632   -0.0117722    0.5547654   -0.8211411   -0.1340249
  -0.0461187   -0.0525320   -0.0099624    0.7496451   -0.4041492    0.5241141
  -0.0468566   -0.0502984   -0.0079014    0.5883219    0.0049873    0.8086115
  -0.0487214   -0.0483387   -0.0079226    0.0824084    0.5577186    0.8259291
  -0.0500458   -0.0464885   -0.0107246   -0.2600848    0.7238560    0.6390527
  -0.0529315   -0.0438970   -0.0149686   -0.0922465    0.6475440    0.7564241
  -0.0542936   -0.0408512   -0.0163793    0.2369470    0.3556151    0.9040985
  -0.0559077   -0.0343490   -0.0173658    0.3920062    0.1884144    0.9004616
  -0.0571804   -0.0277744   -0.0180042    0.4187349    0.0905898    0.9035788
  -0.0573170   -0.0139762   -0.0187152    0.1445711   -0.0484165    0.9883092
  -0.0562694   -0.0060570   -0.0176948   -0.0693648   -0.3261723    0.9427620
  -0.0872138    0.0020066   -0.0094047    0.1736598   -0.9771640    0.1224451
  -0.0747032    0.0040103   -0.0097175    0.1728610   -0.9231070    0.3435004
  -0.0624027    0.0059787   -0.0093814    0.0565712   -0.7402878    0.6699057
  -0.0539198    0.0037293   -0.0116541   -0.0334006   -0.5619910    0.8264687
  -0.1125544    0.0002943   -0.0080228    0.0556346   -0.7513565    0.6575471
  -0.1061875   -0.0005626   -0.0084762   -0.0635888   -0.9607304    0.2700991
  -0.0948846   -0.0008068   -0.0015653    0.0355160   -0.9992632    0.0145466
  -0.0858966   -0.0003692    0.0010860    0.2211955   -0.9712055    0.0885008
  -0.1184417   -0.0011117   -0.0081215    0.0611569   -0.4605266    0.8855366
  -0.0969935   -0.0139132   -0.0156115   -0.0607717   -0.1952340   -0.9788721
  -0.1038417   -0.0010546   -0.0164256   -0.1466884   -0.0861448   -0.9854246
  -0.1103085    0.0106781   -0.0165163   -0.1927182   -0.3775290   -0.9057216
  -0.1228397    0.0096757   -0.0119663   -0.6809520    0.6011536    0.4182329
  -0.1167165    0.0205403   -0.0222274   -0.6114321   -0.2835128   -0.7387633
  -0.1187264    0.0194863   -0.0195315   -0.6564231    0.6658111    0.3546891
  -0.1199254    0.0158377   -0.0156040   -0.4333153    0.7034653    0.5633599
  -0.1247426    0.0031647   -0.0077321   -0.4821040    0.2533624    0.8386795
  -0.1239725    0.0057654   -0.0088917   -0.6201953    0.5222791    0.5853053
  -0.1175894    0.0023035   -0.0059449   -0.1193064   -0.0341682    0.9922694
  -0.0896226   -0.0385907   -0.0096046   -0.0571958   -0.2353401   -0.9702287
  -0.0755442   -0.0534807   -0.0071731   -0.2322065   -0.1499186   -0.9610435
  -0.0644740   -0.0512574   -0.0125957   -0.5299106    0.0142197   -0.8479343
  -0.0543391   -0.0524995   -0.0187086    0.0614874   -0.6517352   -0.7559501
  -0.0558873   -0.0497779   -0.0189640   -0.4858253   -0.1208694   -0.8656584
  -0.0502789   -0.0517278   -0.0165168    0.3798633   -0.8133325   -0.4406746
  -0.0485557   -0.0528557   -0.0133226    0.2023535   -0.7385767   -0.6430844
  -0.0436256   -0.0526609   -0.0132037    0.4989556   -0.8577449   -0.1237622
  -0.0438863   -0.0508115   -0.0117473    0.6508638   -0.4260864    0.6283523
  -0.0442794   -0.0479675   -0.0096721    0.5770254   -0.0457106    0.8154460
  -0.0444485   -0.0450599   -0.0105924    0.1452347    0.5339184    0.8329694
  -0.0474610   -0.0437672   -0.0126018   -0.2341203    0.7259719    0.6466471
  -0.0497486   -0.0408231   -0.0170155   -0.1293230    0.6317865    0.7642783
  -0.0506093   -0.0384599   -0.0185297    0.1894290    0.3798871    0.9054294
  -0.0525056   -0.0324742   -0.0191509    0.3756998    0.1906251    0.9069243
  -0.0524185   -0.0261082   -0.0203360    0.4038894    0.0393798    0.9139599
  -0.0521303   -0.0161685   -0.0197173    0.2158515   -0.1809869    0.9595061
  -0.0507919   -0.0094833   -0.0177921   -0.0906528   -0.3304830    0.9394483
  -0.0473552   -0.0014734   -0.0135613   -0.1862685   -0.4004310    0.8971951
  -0.0744992    0.0038706   -0.0004852    0.3940573   -0.8730724    0.2871644
  -0.0619708    0.0096338   -0.0032277    0.2735874   -0.7450940    0.6082638
  -0.0525239    0.0082103   -0.0077228    0.1015740   -0.6478406    0.7549737
  -0.0442069    0.0045834   -0.0104701   -0.1503329   -0.4464830    0.8820731
  -0.1121244    0.0021437   -0.0056045   -0.1092163   -0.3863469    0.9158645
  -0.1045049   -0.0000830   -0.0054692   -0.2202229   -0.8683765    0.4443244
  -0.0958628   -0.0009599    0.0000772   -0.2676988   -0.6312210    0.7279405
  -0.0854763    0.0000436    0.0019743    0.0663270   -0.5797896    0.8120620
  -0.0744834    0.0051639    0.0012869    0.3256141   -0.3450296    0.8803011
  -0.0876053   -0.0147073   -0.0160766   -0.0744125   -0.2340162   -0.9693808
  -0.0946117   -0.0021388   -0.0180511   -0.2097457   -0.1899028   -0.9591369
  -0.0982439    0.0088036   -0.0179980   -0.3083954   -0.3700079   -0.8763483
  -0.1062834    0.0185899   -0.0251743   -0.2276209   -0.6505741   -0.7245289
  -0.1155768    0.0080584   -0.0071625   -0.0853506    0.6138181    0.7848201
  -0.1139633    0.0120551   -0.0120555   -0.0331419    0.7435659    0.6678408
  -0.1161122    0.0243346   -0.0220553   -0.6775965    0.7167679    0.1646414
  -0.1085014    0.0289163   -0.0332317   -0.4885900   -0.4707397   -0.7346319
  -0.1123787    0.0153376   -0.0159435    0.0402198    0.7143624    0.6986191
  -0.1108993    0.0186646   -0.0190305    0.0545732    0.6311407    0.7737462
  -0.1164578    0.0059119   -0.0060777   -0.0911956    0.3051659    0.9479225
  -0.1109883    0.0025868   -0.0060856   -0.0785711    0.3999676    0.9131552
  -0.0771532   -0.0345367   -0.0116887   -0.1347990   -0.2348930   -0.9626289
  -0.0653870   -0.0459728   -0.0116968   -0.4077132   -0.0771381   -0.9098460
  -0.0561415   -0.0436642   -0.0179410   -0.5909957    0.0835972   -0.8023313
  -0.0512059   -0.0502133   -0.0205440    0.0698877   -0.6415937   -0.7638542
  -0.0519291   -0.0467319   -0.0217379   -0.4965465   -0.1216332   -0.8594457
  -0.0476849   -0.0495354   -0.0180555    0.4099732   -0.7759965   -0.4793239
  -0.0459780   -0.0505250   -0.0150928    0.1766224   -0.7355111   -0.6540856
  -0.0408600   -0.0506918   -0.0155444    0.4118326   -0.8815575   -0.2307603
  -0.0413310   -0.0494090   -0.0130752    0.6566262   -0.4774658    0.5838394
  -0.0407082   -0.0468436   -0.0119199    0.5911730   -0.0968455    0.8007094
  -0.0419308   -0.0439066   -0.0120671    0.2510818    0.4725295    0.8447922
  -0.0442965   -0.0410827   -0.0145411   -0.1588149    0.6974282    0.6988359
  -0.0460086   -0.0377988   -0.0191182   -0.1268989    0.5948215    0.7937783
  -0.0473734   -0.0352959   -0.0201871    0.1289558    0.3713552    0.9194921
  -0.0482548   -0.0301286   -0.0213683    0.3262263    0.2145362    0.9206251
  -0.0493640   -0.0253841   -0.0217767    0.3928182   -0.0079402    0.9195819
  -0.0489558   -0.0178984   -0.0209740    0.2224473   -0.2606745    0.9394498
  -0.0468675   -0.0126980   -0.0189935    0.0378463   -0.4579442    0.8881750
  -0.0438394   -0.0063286   -0.0147089   -0.0648438   -0.5053890    0.8604518
  -0.0390823   -0.0012931   -0.0114348   -0.1599333   -0.5895107    0.7917692
  -0.0612736    0.0126814   -0.0017746    0.2227834   -0.0519096    0.9734850
  -0.0510166    0.0139641   -0.0037043    0.1614624   -0.3589869    0.9192705
  -0.0419221    0.0108580   -0.0075312   -0.1207060   -0.4755459    0.8713703
  -0.0340083   -0.0002906   -0.0087776   -0.3006252   -0.6036255    0.7384177
  -0.1039328    0.0002302   -0.0033131   -0.2591277    0.0210136    0.9656145
  -0.0955777    0.0032821   -0.0003888   -0.3854036    0.3489701    0.8542154
  -0.0862200    0.0057990    0.0014765   -0.1840726    0.4033931    0.8963210
  -0.0759288    0.0087632    0.0012109   -0.0671117    0.5249256    0.8484981
  -0.0621745    0.0154884   -0.0040305   -0.1215980    0.7799446    0.6139221
  -0.0856491   -0.0044289   -0.0187035   -0.1942238   -0.3415912   -0.9195610
  -0.0771218   -0.0169055   -0.0161083   -0.1363681   -0.2666655   -0.9540929
  -0.0921484    0.0063839   -0.0213668   -0.4310156   -0.3892672   -0.8140618
  -0.0950645    0.0162066   -0.0252518   -0.3310729   -0.5732318   -0.7495305
  -0.0999630    0.0261744   -0.0336501   -0.1938986   -0.7232546   -0.6628017
  -0.1108918    0.0050137   -0.0067002    0.0392891    0.4821830    0.8751891
  -0.1085222    0.0097454   -0.0092748    0.1636023    0.6598340    0.7333849
  -0.1063384    0.0132215   -0.0138766    0.1208193    0.7023775    0.7014760
  -0.1124846    0.0277435   -0.0273830   -0.1236152    0.8922447    0.4343025
  -0.1071891    0.0309892   -0.0345061   -0.5477331    0.8365297    0.0143692
  -0.1052107    0.0303733   -0.0374319   -0.5803323    0.1246152   -0.8047891
  -0.1073205    0.0231347   -0.0228465    0.1638131    0.6964028    0.6987048
  -0.1046741    0.0158228   -0.0165113    0.0760059    0.6919617    0.7179221
  -0.1030388    0.0178831   -0.0190900    0.2338238    0.6735551    0.7011775
  -0.1034819    0.0031917   -0.0039019   -0.2080780    0.6634622    0.7186942
  -0.0665984   -0.0323523   -0.0141081   -0.2709959   -0.2149741   -0.9382683
  -0.0573160   -0.0385014   -0.0167687   -0.4929770   -0.0649095   -0.8676177
  -0.0524746   -0.0411235   -0.0203417   -0.6353423    0.0812155   -0.7679481
  -0.0491759   -0.0474381   -0.0223503    0.0401202   -0.6100604   -0.7913385
  -0.0498634   -0.0437165   -0.0234029   -0.5746877   -0.0903637   -0.8133686
  -0.0451020   -0.0473489   -0.0195846    0.3373152   -0.7950960   -0.5040246
  -0.0439826   -0.0486863   -0.0164617    0.1653649   -0.6940763   -0.7006515
  -0.0382463   -0.0493273   -0.0162434    0.3839413   -0.9066241   -0.1749910
  -0.0383254   -0.0482371   -0.0152421    0.5869817   -0.4841913    0.6488538
  -0.0381659   -0.0447532   -0.0138314    0.5632919   -0.0454613    0.8250063
  -0.0393868   -0.0412813   -0.0143283    0.3084272    0.4584378    0.8334911
  -0.0405587   -0.0380626   -0.0166591    0.0392626    0.6480386    0.7605948
  -0.0430453   -0.0347558   -0.0205001   -0.0959255    0.5477593    0.8311186
  -0.0438201   -0.0313705   -0.0220767    0.0359807    0.3418452    0.9390672
  -0.0448343   -0.0284004   -0.0228881    0.1459637    0.2312638    0.9618792
  -0.0457379   -0.0241661   -0.0236188    0.2965071    0.0068989    0.9550057
  -0.0450237   -0.0180698   -0.0216754    0.3466402   -0.3478975    0.8710958
  -0.0429189   -0.0130147   -0.0194543    0.2868892   -0.5256382    0.8008739
  -0.0406931   -0.0098787   -0.0173965    0.2701918   -0.6638185    0.6973818
  -0.0345779   -0.0036124   -0.0137148    0.2519482   -0.7721052    0.5834172
  -0.0313137   -0.0023264   -0.0114441    0.0550381   -0.9695234    0.2387365
  -0.0511531    0.0165775   -0.0041334    0.0596147    0.5728319    0.8175021
  -0.0385672    0.0147752   -0.0042781   -0.0556229    0.1262884    0.9904329
  -0.0293380    0.0010676   -0.0064715   -0.2340839   -0.4432465    0.8652961
  -0.0272846   -0.0036118   -0.0096014   -0.2119626   -0.8953728    0.3916368
  -0.0948174    0.0051596   -0.0026474   -0.3900882    0.8161390    0.4263195
  -0.0865997    0.0088452   -0.0013407   -0.3159328    0.8338324    0.4526699
  -0.0769533    0.0115185   -0.0020653   -0.1678581    0.8585915    0.4844010
  -0.0624896    0.0153507   -0.0054227   -0.2330741    0.9704694    0.0621748
  -0.0512172    0.0176950   -0.0054529   -0.0675907    0.9973512    0.0268723
  -0.0773073   -0.0072982   -0.0193316   -0.2150836   -0.4012087   -0.8903767
  -0.0852816    0.0026277   -0.0228252   -0.3729317   -0.5112176   -0.7743246
  -0.0684413   -0.0180952   -0.0174182   -0.2604995   -0.2917461   -0.9203392
  -0.0884944    0.0117149   -0.0266595   -0.4540242   -0.4472385   -0.7706100
  -0.0901307    0.0226654   -0.0323084   -0.2780712   -0.6087262   -0.7430537
  -0.0930432    0.0313547   -0.0416980   -0.1258982   -0.0142736   -0.9919405
  -0.1038980    0.0038481   -0.0054881    0.0360450    0.8667739    0.4973970
  -0.1035325    0.0063635   -0.0088652    0.2804550    0.7511558    0.5975867
  -0.1020694    0.0095918   -0.0116002    0.3361114    0.5801988    0.7418885
  -0.1012976    0.0277335   -0.0300061    0.1540310    0.7864634    0.5981218
  -0.0937999    0.0331079   -0.0389479    0.2120476    0.9698283    0.1202871
  -0.1039563    0.0324354   -0.0363550   -0.3113855    0.8795367   -0.3597976
  -0.0963466    0.0232388   -0.0266464    0.2886552    0.6188919    0.7305142
  -0.0998015    0.0119768   -0.0136208    0.4453441    0.5120364    0.7344980
  -0.0909676    0.0180034   -0.0267882    0.3965720    0.4714901    0.7876723
  -0.0939871    0.0059558   -0.0059006   -0.2108774    0.9775123    0.0007172
  -0.0587044   -0.0289350   -0.0179263   -0.3766173   -0.2046725   -0.9034758
  -0.0533126   -0.0348207   -0.0194932   -0.5378275   -0.0548442   -0.8412691
  -0.0499141   -0.0386436   -0.0223623   -0.6570558    0.0985060   -0.7473782
  -0.0466305   -0.0442733   -0.0249699   -0.0559885   -0.6034027   -0.7954687
  -0.0476111   -0.0415967   -0.0252909   -0.5498782   -0.0622562   -0.8329214
  -0.0413810   -0.0447081   -0.0215886    0.1967399   -0.8354173   -0.5131971
  -0.0399727   -0.0460699   -0.0184997    0.0157559   -0.7675738   -0.6407669
  -0.0341742   -0.0476664   -0.0195285    0.2312700   -0.9577402   -0.1710201
  -0.0343899   -0.0461183   -0.0175745    0.5988488   -0.4808872    0.6404121
  -0.0340270   -0.0436809   -0.0161361    0.5147978   -0.0952040    0.8520090
  -0.0354961   -0.0393927   -0.0167943    0.1771573    0.4438380    0.8784208
  -0.0369789   -0.0358631   -0.0195738    0.0361928    0.5706738    0.8203789
  -0.0372730   -0.0317935   -0.0224526   -0.0045298    0.4398181    0.8980755
  -0.0382308   -0.0281907   -0.0232153    0.0406419    0.2738582    0.9609110
  -0.0392178   -0.0253648   -0.0237880    0.0809638    0.1910808    0.9782295
  -0.0387106   -0.0217791   -0.0243344    0.1102881    0.1096723    0.9878302
  -0.0378807   -0.0179702   -0.0247824    0.2720978   -0.1239614    0.9542517
  -0.0376384   -0.0136035   -0.0231748    0.4459600   -0.4226903    0.7889566
  -0.0364532   -0.0109398   -0.0223278    0.4206128   -0.6137078    0.6681674
  -0.0335473   -0.0058420   -0.0181293    0.4720765   -0.6841969    0.5558942
  -0.0305623   -0.0025852   -0.0170485    0.6825670   -0.6384228    0.3556946
  -0.0283995   -0.0003776   -0.0174680    0.2803464   -0.9239031   -0.2604016
  -0.0426161    0.0195368   -0.0096095    0.0348745    0.9105787   -0.4118618
  -0.0269002    0.0021471   -0.0056160   -0.0811112   -0.3740836    0.9238411
  -0.0344093    0.0134732   -0.0037152    0.0840745    0.4164896    0.9052446
  -0.0364552    0.0181625   -0.0085571    0.0250722    0.9896202   -0.1415033
  -0.0249640   -0.0039782   -0.0093548   -0.0187783   -0.9414143    0.3367291
  -0.0862922    0.0093861   -0.0040286   -0.3098968    0.9085972   -0.2800268
  -0.0766016    0.0126905   -0.0047194   -0.2374436    0.9251920   -0.2960410
  -0.0628054    0.0152143   -0.0068157   -0.2281472    0.8666201   -0.4437550
  -0.0512624    0.0172399   -0.0080582   -0.0865181    0.8269295   -0.5556098
  -0.0443474    0.0126839   -0.0122652   -0.1355566    0.5989188   -0.7892532
  -0.0769458   -0.0013188   -0.0227611   -0.3637213   -0.6126547   -0.7016845
  -0.0692816   -0.0103952   -0.0200738   -0.2686776   -0.3963593   -0.8779018
  -0.0831367    0.0080352   -0.0290545   -0.5548737   -0.4298730   -0.7122671
  -0.0598878   -0.0186423   -0.0203417   -0.3272569   -0.2635322   -0.9074435
  -0.0818745    0.0181955   -0.0338243   -0.1569094   -0.4389679   -0.8846958
  -0.0788031    0.0162484   -0.0333819   -0.2823796   -0.1836386   -0.9415618
  -0.0842237    0.0283229   -0.0387912    0.3467727    0.2086391   -0.9144498
  -0.0939112    0.0057229   -0.0100483    0.0837238    0.9964291   -0.0109233
  -0.0938354    0.0054834   -0.0141859    0.4022733    0.8888607    0.2193234
  -0.0935303    0.0066073   -0.0180278    0.6016150    0.5296321    0.5979542
  -0.0841660    0.0291274   -0.0369181    0.4476577    0.8794194    0.1619384
  -0.0778745    0.0249687   -0.0345768    0.6262163    0.7254284    0.2856690
  -0.0872258    0.0133710   -0.0271512    0.5454050    0.2252217    0.8073466
  -0.0749089    0.0217733   -0.0329840    0.7655368    0.5632784    0.3109192
  -0.0858803    0.0051349   -0.0099412   -0.0152983    0.8853134   -0.4647431
  -0.0537192   -0.0279206   -0.0203228   -0.4401974   -0.1827083   -0.8791154
  -0.0499798   -0.0328974   -0.0219007   -0.5826866   -0.0348147   -0.8119509
  -0.0470756   -0.0361850   -0.0244150   -0.6668284    0.1097842   -0.7370803
  -0.0432017   -0.0421541   -0.0265963   -0.0435475   -0.6106913   -0.7906705
  -0.0436135   -0.0377678   -0.0282664   -0.4896679   -0.1483122   -0.8592025
  -0.0360959   -0.0415767   -0.0253996    0.0466360   -0.7874894   -0.6145612
  -0.0347947   -0.0431334   -0.0230901   -0.1039230   -0.7585383   -0.6432881
  -0.0280462   -0.0451365   -0.0230893    0.4685000   -0.8239742   -0.3187071
  -0.0278774   -0.0434101   -0.0203981    0.6151274   -0.4775445    0.6273512
  -0.0285915   -0.0397136   -0.0191284    0.4075227   -0.0821235    0.9094949
  -0.0308045   -0.0344895   -0.0195147    0.0597827    0.3502293    0.9347542
  -0.0316771   -0.0309045   -0.0219621   -0.1302613    0.4862335    0.8640654
  -0.0327136   -0.0276411   -0.0232653   -0.0381898    0.3748520    0.9262977
  -0.0337097   -0.0242805   -0.0241852    0.0357512    0.2842996    0.9580687
  -0.0339065   -0.0221637   -0.0248945    0.0843587    0.2720470    0.9585792
  -0.0340420   -0.0195493   -0.0253241    0.2226542    0.1120791    0.9684335
  -0.0341142   -0.0168469   -0.0253641    0.2368736    0.0097152    0.9714919
  -0.0342221   -0.0143835   -0.0255444    0.3093620   -0.2332344    0.9218985
  -0.0335977   -0.0118245   -0.0243797    0.3473897   -0.5045675    0.7903999
  -0.0319402   -0.0086530   -0.0222621    0.3875255   -0.6123529    0.6890921
  -0.0292450   -0.0053727   -0.0211478    0.7549419   -0.2962360    0.5850700
  -0.0287949   -0.0043968   -0.0229152    0.8539937    0.5202779   -0.0023986
  -0.0258777   -0.0018513   -0.0147634   -0.1056224   -0.9837259   -0.1453520
  -0.0310565   -0.0045739   -0.0248746    0.6574301    0.6512349   -0.3790498
  -0.0290553   -0.0000304   -0.0202955    0.5718163    0.2926119   -0.7664231
  -0.0246389   -0.0018655   -0.0178172    0.0241323   -0.7938896   -0.6075829
  -0.0386295    0.0080076   -0.0158353    0.0099676    0.5263867   -0.8501868
  -0.0340945    0.0124659   -0.0125197    0.1592685    0.4755962   -0.8651253
  -0.0300217    0.0110962   -0.0126276   -0.1053827    0.4071758   -0.9072499
  -0.0204291    0.0055378   -0.0047694   -0.0385811   -0.2710259    0.9617986
  -0.0205704    0.0095269   -0.0040131    0.1448747    0.3477147    0.9263400
  -0.0226735    0.0172724   -0.0126789   -0.1010349    0.9913824   -0.0833834
  -0.0224698    0.0126080   -0.0157637   -0.4827221    0.2258070   -0.8461623
  -0.0163270   -0.0021733   -0.0065743   -0.1015925   -0.8336380    0.5428873
  -0.0754608    0.0045931   -0.0116515   -0.0616197    0.7427183   -0.6667627
  -0.0638294    0.0023263   -0.0141525   -0.0687173    0.6582831   -0.7496274
  -0.0577105    0.0000573   -0.0169307   -0.1465523    0.6255137   -0.7663257
  -0.0492432   -0.0015285   -0.0197897   -0.1645021    0.6526659   -0.7395717
  -0.0433273   -0.0027510   -0.0225963   -0.2247391    0.6815378   -0.6964184
  -0.0700585   -0.0048622   -0.0230387   -0.3535175   -0.6578595   -0.6650160
  -0.0769602    0.0034387   -0.0308265   -0.4603410   -0.6459581   -0.6089534
  -0.0607097   -0.0123136   -0.0218141   -0.3393141   -0.4040006   -0.8494995
  -0.0740631    0.0112894   -0.0368103   -0.5219567   -0.0968457   -0.8474562
  -0.0546669   -0.0189783   -0.0222269   -0.3925817   -0.2498631   -0.8851260
  -0.0775876    0.0244504   -0.0349764    0.5397774    0.2549584   -0.8022697
  -0.0750577    0.0214048   -0.0337154    0.3770324    0.4166896   -0.8271737
  -0.0861154    0.0025598   -0.0151454    0.2114293    0.9590886   -0.1882730
  -0.0863616    0.0026387   -0.0197396    0.3973333    0.8318412    0.3875132
  -0.0801359    0.0092428   -0.0305137    0.4896120    0.4444932    0.7501373
  -0.0709052    0.0145074   -0.0360378    0.8044244    0.4647868    0.3699658
  -0.0714106    0.0140263   -0.0371893    0.1051911    0.5893768   -0.8009805
  -0.0767979    0.0012804   -0.0158832    0.1017462    0.9229937   -0.3711203
  -0.0501292   -0.0264123   -0.0226700   -0.5314037   -0.1654300   -0.8308087
  -0.0464215   -0.0310855   -0.0247322   -0.6444744   -0.0504713   -0.7629583
  -0.0432618   -0.0341077   -0.0277602   -0.6669981    0.0201233   -0.7447876
  -0.0380366   -0.0387091   -0.0292143   -0.0663550   -0.7051692   -0.7059274
  -0.0380729   -0.0355859   -0.0316674   -0.3869975   -0.4398781   -0.8103951
  -0.0306638   -0.0403042   -0.0266755    0.0930724   -0.8189239   -0.5663049
  -0.0293554   -0.0427207   -0.0248819    0.2191177   -0.7015661   -0.6780800
  -0.0255438   -0.0397471   -0.0300257    0.0237393   -0.9169414   -0.3983151
  -0.0244616   -0.0413349   -0.0270506    0.5421806   -0.8338675   -0.1034656
  -0.0239288   -0.0398293   -0.0235199    0.6823225   -0.6035647    0.4124872
  -0.0241585   -0.0361500   -0.0206266    0.3891178   -0.1898770    0.9014067
  -0.0255131   -0.0316716   -0.0205230    0.0300551    0.2230456    0.9743446
  -0.0271423   -0.0276836   -0.0223479   -0.2150806    0.4316588    0.8760200
  -0.0277182   -0.0246608   -0.0244957   -0.2204968    0.4200395    0.8803113
  -0.0279430   -0.0223976   -0.0254448   -0.0950091    0.3279538    0.9399040
  -0.0284094   -0.0198566   -0.0262237   -0.0726857    0.3501038    0.9338866
  -0.0286442   -0.0179831   -0.0270910    0.0211879    0.2000099    0.9795648
  -0.0290968   -0.0161362   -0.0272770    0.1429270   -0.0790917    0.9865680
  -0.0291542   -0.0141118   -0.0267271    0.1419404   -0.1307478    0.9812023
  -0.0284036   -0.0124037   -0.0264229    0.1784212   -0.3079695    0.9345163
  -0.0282020   -0.0107918   -0.0257972    0.2872009   -0.3671056    0.8847311
  -0.0273727   -0.0087377   -0.0249623    0.5455534   -0.1869994    0.8169472
  -0.0259865   -0.0069499   -0.0266490    0.6239096    0.7101212    0.3262892
  -0.0262139   -0.0071868   -0.0284412    0.2694540    0.9611001    0.0606716
  -0.0176474   -0.0024887   -0.0117309    0.0169544   -0.9875895   -0.1561392
  -0.0263868   -0.0067990   -0.0301915    0.0556486    0.9738576    0.2202376
  -0.0321230   -0.0063281   -0.0278488    0.4233733    0.8361062   -0.3488288
  -0.0333001   -0.0004433   -0.0222407    0.1054337    0.7890614   -0.6051990
  -0.0305504    0.0034367   -0.0164081    0.0460703    0.6298180   -0.7753753
  -0.0264696    0.0043706   -0.0162945   -0.0360787    0.3218930   -0.9460884
  -0.0175961    0.0003420   -0.0170324    0.0237019   -0.5698733   -0.8213906
  -0.0346863    0.0022538   -0.0179668    0.0781561    0.6621980   -0.7452419
  -0.0400754   -0.0029233   -0.0242612   -0.0386569    0.7450196   -0.6659215
  -0.0194901    0.0060757   -0.0184988   -0.3568293   -0.1233083   -0.9259957
  -0.0069829    0.0029388   -0.0034495   -0.0901167   -0.2058230    0.9744310
  -0.0066364    0.0054952   -0.0039069    0.1233630    0.5150396    0.8482428
  -0.0123970    0.0173552   -0.0199352   -0.0795102    0.9967939   -0.0089463
  -0.0127725    0.0138490   -0.0233455   -0.6690259    0.2117205   -0.7124456
  -0.0115989    0.0087587   -0.0238066   -0.5030084   -0.3718205   -0.7802128
  -0.0086916   -0.0035080   -0.0055693   -0.0162896   -0.9703022    0.2413467
  -0.0650496   -0.0018333   -0.0192287    0.1732882    0.9004784   -0.3988857
  -0.0586450   -0.0046696   -0.0216989    0.1098748    0.9120812   -0.3950131
  -0.0516597   -0.0060811   -0.0250332   -0.0184141    0.9229093   -0.3845768
  -0.0455303   -0.0063893   -0.0266368   -0.0709825    0.9308034   -0.3585617
  -0.0423666   -0.0068976   -0.0288247   -0.1071885    0.9445078   -0.3105085
  -0.0711582    0.0016336   -0.0320558   -0.4189131   -0.6743699   -0.6080600
  -0.0615529   -0.0083390   -0.0243709   -0.4036123   -0.6725167   -0.6203373
  -0.0552939   -0.0140794   -0.0235746   -0.4352230   -0.4524046   -0.7784029
  -0.0693708    0.0089390   -0.0404845   -0.4811332   -0.1826583   -0.8574070
  -0.0508480   -0.0191952   -0.0239580   -0.5244774   -0.2723745   -0.8066818
  -0.0775915    0.0003571   -0.0220519    0.3302433    0.9055600    0.2662713
  -0.0721301    0.0073934   -0.0321873    0.4410368    0.6577834    0.6105796
  -0.0672433    0.0103265   -0.0397387    0.5980719    0.6873634    0.4121185
  -0.0673501    0.0103812   -0.0405287    0.1257424    0.6450018   -0.7537649
  -0.0655009   -0.0026901   -0.0250392    0.3038003    0.9366374    0.1744012
  -0.0461308   -0.0257662   -0.0258897   -0.6497622   -0.1841750   -0.7374881
  -0.0429420   -0.0296207   -0.0280941   -0.7092005   -0.1163309   -0.6953429
  -0.0384645   -0.0320218   -0.0325067   -0.6226627   -0.2679548   -0.7351811
  -0.0320383   -0.0392273   -0.0292680   -0.1694778   -0.8826712   -0.4383706
  -0.0336858   -0.0370601   -0.0325256   -0.4037422   -0.7395867   -0.5385199
  -0.0275445   -0.0385911   -0.0331966   -0.1737493   -0.9447315   -0.2780170
  -0.0205758   -0.0385922   -0.0326793    0.0114836   -0.9979481    0.0629895
  -0.0196579   -0.0383504   -0.0299333    0.2514596   -0.9677651    0.0140988
  -0.0194228   -0.0372125   -0.0262611    0.4959768   -0.7753243    0.3909977
  -0.0185415   -0.0331155   -0.0215273    0.4711480   -0.4025406    0.7848443
  -0.0200935   -0.0277397   -0.0211995    0.1335530    0.0868268    0.9872308
  -0.0220013   -0.0237302   -0.0229914   -0.0676204    0.3543028    0.9326827
  -0.0221982   -0.0216122   -0.0237021   -0.2205601    0.3209662    0.9210504
  -0.0230316   -0.0193884   -0.0249869   -0.3084135    0.3320716    0.8914087
  -0.0238804   -0.0177141   -0.0259180   -0.2828674    0.3501777    0.8929511
  -0.0241130   -0.0158352   -0.0267692   -0.2507383    0.2072334    0.9456134
  -0.0245491   -0.0141278   -0.0267248   -0.1499678    0.0077403    0.9886606
  -0.0244573   -0.0132538   -0.0265345   -0.0732137   -0.0826152    0.9938886
  -0.0240934   -0.0122531   -0.0266289   -0.0658149    0.0147565    0.9977227
  -0.0239454   -0.0107404   -0.0264000    0.0427917    0.0884593    0.9951602
  -0.0241766   -0.0095497   -0.0266669    0.2036099    0.3354428    0.9197941
  -0.0222211   -0.0077977   -0.0284127    0.3330121    0.7046905    0.6265096
  -0.0231711   -0.0073909   -0.0294423    0.1545640    0.9314032    0.3295423
  -0.0229563   -0.0062864   -0.0307889    0.0430624    0.7718732    0.6343164
  -0.0088871   -0.0004123   -0.0140959    0.1124377   -0.8871692   -0.4475362
  -0.0268724   -0.0060950   -0.0324000   -0.1159058    0.8890674    0.4428601
  -0.0229879   -0.0054584   -0.0316279   -0.0879822    0.7766061    0.6238125
  -0.0331306   -0.0069104   -0.0311340    0.1814941    0.9832918    0.0140397
  -0.0363145   -0.0043136   -0.0256826   -0.0512623    0.8779921   -0.4759222
  -0.0085022    0.0027556   -0.0195335   -0.0884540   -0.7506833   -0.6547140
  -0.0378498   -0.0067239   -0.0297007   -0.1391709    0.9772095   -0.1602908
  -0.0008349   -0.0018267   -0.0047017    0.3111639   -0.6521202    0.6913149
  -0.0009087    0.0046480   -0.0036100    0.2140508    0.4909864    0.8444611
  -0.0073284    0.0168289   -0.0242915   -0.1081137    0.9923880    0.0589701
  -0.0091943    0.0143389   -0.0278459   -0.8048782    0.2407533   -0.5424103
  -0.0078262    0.0095173   -0.0271369   -0.6216578   -0.5048665   -0.5988750
  -0.0051699    0.0039389   -0.0222630   -0.1818756   -0.8607460   -0.4754341
  -0.0033687   -0.0013092   -0.0108255    0.2395363   -0.9203157   -0.3092593
  -0.0592769   -0.0047582   -0.0270493    0.3593569    0.9048888    0.2281204
  -0.0527063   -0.0062305   -0.0290408    0.2394668    0.9474890    0.2119440
  -0.0463892   -0.0069000   -0.0312150    0.1306509    0.9750688    0.1793634
  -0.0428746   -0.0069414   -0.0331470    0.0710080    0.9677087    0.2418631
  -0.0384266   -0.0067137   -0.0346547   -0.1703494    0.9268047    0.3346851
  -0.0631463   -0.0020054   -0.0324545   -0.4247618   -0.7284945   -0.5374693
  -0.0567356   -0.0092322   -0.0269040   -0.4155930   -0.6806149   -0.6033620
  -0.0515291   -0.0144023   -0.0256936   -0.5091912   -0.4513812   -0.7327887
  -0.0622952    0.0044829   -0.0419510   -0.3801878   -0.4849650   -0.7875698
  -0.0466459   -0.0190702   -0.0275048   -0.6442954   -0.2721962   -0.7146976
  -0.0637075    0.0024893   -0.0353867    0.4174934    0.7265410    0.5457448
  -0.0607313    0.0069508   -0.0425843    0.6593795    0.6896003    0.2994497
  -0.0610756    0.0075561   -0.0435226    0.4011545    0.4566362   -0.7940771
  -0.0585566   -0.0001218   -0.0339750    0.3817338    0.8078074    0.4491398
  -0.0431969   -0.0233367   -0.0296328   -0.7222933   -0.2059797   -0.6602006
  -0.0385586   -0.0280958   -0.0334773   -0.7105451   -0.2351363   -0.6632018
  -0.0348617   -0.0349249   -0.0341553   -0.5970175   -0.5192737   -0.6114940
  -0.0292108   -0.0368143   -0.0363463   -0.4308123   -0.7959856   -0.4252149
  -0.0224563   -0.0391764   -0.0385688   -0.2177774   -0.9710966   -0.0976952
  -0.0169181   -0.0396347   -0.0352228    0.2146224   -0.9669637    0.1375444
  -0.0159600   -0.0386150   -0.0326680    0.3460514   -0.8918746    0.2912184
  -0.0149144   -0.0358074   -0.0280630    0.5638001   -0.6815484    0.4664989
  -0.0139964   -0.0309363   -0.0235363    0.5196057   -0.4217278    0.7430717
  -0.0137809   -0.0268197   -0.0220780    0.2406191    0.0371949    0.9699067
  -0.0149566   -0.0195153   -0.0222850    0.0699697    0.2105683    0.9750719
  -0.0151167   -0.0171477   -0.0228474    0.0228821    0.4092323    0.9121433
  -0.0153897   -0.0160575   -0.0235124    0.0173720    0.4219601    0.9064480
  -0.0162011   -0.0141339   -0.0242968   -0.0133911    0.3731321    0.9276816
  -0.0161929   -0.0125268   -0.0253276    0.0255442    0.4205011    0.9069324
  -0.0167464   -0.0119391   -0.0256063    0.0852934    0.4610649    0.8832577
  -0.0170668   -0.0110875   -0.0264113    0.0377733    0.5393096    0.8412600
  -0.0173382   -0.0099929   -0.0270613    0.0560355    0.6703521    0.7399244
  -0.0160212   -0.0081508   -0.0293792   -0.0929738    0.6608562    0.7447314
  -0.0163354   -0.0062212   -0.0308762   -0.1037921    0.7517303    0.6512516
  -0.0047428    0.0012032   -0.0155913    0.1368214   -0.8930793   -0.4285900
  -0.0272622   -0.0039677   -0.0347700   -0.1686537    0.7319957    0.6601048
  -0.0236533   -0.0040017   -0.0333726   -0.0872604    0.7716098    0.6300825
  -0.0332391   -0.0057131   -0.0354081   -0.0365932    0.8905356    0.4534393
  -0.0333949   -0.0020980   -0.0392234   -0.2251422    0.8368299    0.4990258
   0.0037635    0.0001022   -0.0069685    0.5730717   -0.7401996    0.3517008
   0.0047390    0.0052803   -0.0057508    0.4475156    0.4161043    0.7915725
  -0.0032987    0.0179079   -0.0322938   -0.2344219    0.9681042    0.0884346
  -0.0060137    0.0142815   -0.0346628   -0.8916175    0.2199379   -0.3957848
  -0.0047018    0.0106168   -0.0335908   -0.6625924   -0.6197056   -0.4206380
  -0.0011551    0.0039761   -0.0250408   -0.2333347   -0.9269375   -0.2938398
   0.0003273    0.0034952   -0.0197164    0.1092459   -0.9704817   -0.2150132
   0.0029060    0.0019906   -0.0136948    0.3209962   -0.8936037   -0.3137419
  -0.0523984   -0.0016070   -0.0369549    0.3483935    0.8518186    0.3911867
  -0.0466350   -0.0034447   -0.0381257    0.2558085    0.8573442    0.4466798
  -0.0436083   -0.0035046   -0.0393667    0.0849251    0.8681028    0.4890656
  -0.0387070   -0.0031585   -0.0394955   -0.1200560    0.8339193    0.5386698
  -0.0333938    0.0019786   -0.0444403   -0.1265513    0.8546044    0.5036230
  -0.0577167   -0.0044451   -0.0336341   -0.3949409   -0.7562136   -0.5216922
  -0.0518324   -0.0103227   -0.0285650   -0.4727602   -0.6699065   -0.5724710
  -0.0467986   -0.0150909   -0.0291076   -0.6388832   -0.4567510   -0.6190370
  -0.0575265    0.0004855   -0.0403461   -0.2183188   -0.6137169   -0.7587414
  -0.0432690   -0.0184822   -0.0310450   -0.7286076   -0.3115166   -0.6099905
  -0.0562432    0.0024423   -0.0405990    0.6438599    0.7570456   -0.1110241
  -0.0577391    0.0032882   -0.0416548    0.4441716    0.0341575   -0.8952904
  -0.0515186   -0.0012646   -0.0394741    0.3584806    0.9254846   -0.1223519
  -0.0383723   -0.0224369   -0.0357618   -0.8024508   -0.2590495   -0.5375556
  -0.0350876   -0.0314348   -0.0360477   -0.7110269   -0.3808644   -0.5910864
  -0.0296120   -0.0346860   -0.0387157   -0.5817268   -0.5678570   -0.5823507
  -0.0230880   -0.0378346   -0.0423784   -0.3945799   -0.7959738   -0.4590559
  -0.0178439   -0.0395566   -0.0407814    0.0592726   -0.9708725   -0.2321495
  -0.0132746   -0.0367713   -0.0330840    0.7191802   -0.6786085    0.1492328
  -0.0141396   -0.0383536   -0.0369800    0.7463836   -0.6624381   -0.0639311
  -0.0123760   -0.0342549   -0.0296413    0.9439522   -0.3207331    0.0780040
  -0.0128772   -0.0303489   -0.0242581    0.9268095   -0.2156640    0.3074301
  -0.0126718   -0.0262314   -0.0227982    0.9392591   -0.0578031    0.3383064
  -0.0127962   -0.0204261   -0.0229801    0.9400239    0.1343005    0.3135577
  -0.0134760   -0.0168446   -0.0237747    0.8681862    0.3076222    0.3893859
  -0.0142967   -0.0153156   -0.0244673    0.7627123    0.4218302    0.4902338
  -0.0142556   -0.0139970   -0.0250176    0.8996246    0.2523387    0.3563718
  -0.0145111   -0.0130474   -0.0254277    0.5116688    0.5681845    0.6444854
  -0.0148487   -0.0120515   -0.0264734    0.8834007    0.3721607    0.2847798
  -0.0147846   -0.0098059   -0.0274650    0.7146657    0.3979986    0.5751957
  -0.0146334   -0.0085655   -0.0287256    0.5451483    0.2325535    0.8054391
  -0.0141372   -0.0076165   -0.0281903    0.6442306    0.0749421    0.7611508
  -0.0158470   -0.0044622   -0.0328460    0.1406073    0.8458193    0.5146060
  -0.0141207   -0.0064399   -0.0298215    0.7463544    0.6012571    0.2853856
  -0.0141620   -0.0060989   -0.0309519    0.8432687    0.4289493    0.3238833
  -0.0275801    0.0007841   -0.0382211   -0.1609238    0.8264685    0.5394936
  -0.0226897    0.0002019   -0.0379097    0.1141666    0.8388776    0.5322127
  -0.0154345   -0.0037296   -0.0347701    0.3063373    0.8691702    0.3882018
  -0.0264283    0.0026553   -0.0445136    0.0225625    0.9582379    0.2850808
   0.0075455    0.0016698   -0.0094171    0.6389529   -0.7504290    0.1691020
   0.0088938    0.0064650   -0.0098461    0.6905935    0.2539295    0.6772004
   0.0025777    0.0197553   -0.0434337    0.0920057    0.9906857    0.1003830
   0.0005543    0.0171087   -0.0481855   -0.6311673    0.5945589   -0.4981241
   0.0008790    0.0122584   -0.0464614   -0.5371075   -0.6859288   -0.4909350
   0.0054880    0.0041338   -0.0301713    0.0745854   -0.9493134   -0.3053540
   0.0053720    0.0036741   -0.0214428    0.1225489   -0.9910744   -0.0524729
   0.0063564    0.0034818   -0.0135731    0.2551346   -0.9499060   -0.1805127
  -0.0478923   -0.0021833   -0.0399460    0.0969346    0.9684300    0.2296672
  -0.0438942   -0.0010115   -0.0435195    0.0322703    0.8564932    0.5151486
  -0.0396147   -0.0000389   -0.0445553   -0.0880614    0.8167391    0.5702476
  -0.0337648    0.0046700   -0.0494663   -0.0555670    0.8174513    0.5733112
  -0.0251338    0.0044540   -0.0518554    0.3099038    0.9209328    0.2363099
  -0.0530583   -0.0058076   -0.0347725   -0.4345932   -0.7432810   -0.5085884
  -0.0474684   -0.0113390   -0.0324665   -0.6034192   -0.6324511   -0.4856860
  -0.0437914   -0.0153545   -0.0328059   -0.7037690   -0.5026168   -0.5020812
  -0.0529959   -0.0033915   -0.0383265   -0.3348735   -0.6433267   -0.6884697
  -0.0388021   -0.0184412   -0.0373236   -0.7824362   -0.3430245   -0.5197382
  -0.0527471   -0.0013598   -0.0401160    0.0082931   -0.0198464   -0.9997686
  -0.0487247   -0.0026235   -0.0418195   -0.6057858    0.7152165   -0.3485527
  -0.0358438   -0.0276593   -0.0377321   -0.7503115   -0.3023435   -0.5878954
  -0.0304375   -0.0308617   -0.0410226   -0.6478921   -0.4226894   -0.6336951
  -0.0239904   -0.0350378   -0.0446402   -0.5273142   -0.6026032   -0.5990067
  -0.0190388   -0.0371008   -0.0452216   -0.1303912   -0.8303610   -0.5417552
  -0.0153033   -0.0386980   -0.0417649    0.8279406   -0.3764035   -0.4157341
  -0.0170560   -0.0367156   -0.0457954    0.6914441   -0.4617686   -0.5555851
  -0.0192157   -0.0305075   -0.0512514    0.5208204   -0.2716728   -0.8092837
  -0.0177197   -0.0347252   -0.0478885    0.4888179   -0.4540909   -0.7448882
  -0.0189668   -0.0265141   -0.0518638    0.7494998   -0.0668146   -0.6586242
  -0.0182444   -0.0202421   -0.0524931    0.6790270    0.0969811   -0.7276792
  -0.0182561   -0.0175830   -0.0518931    0.6680464    0.0873751   -0.7389720
  -0.0180746   -0.0151311   -0.0514309    0.7808354   -0.2769037   -0.5600183
  -0.0176241   -0.0121912   -0.0527028    0.7847247   -0.3541272   -0.5087250
  -0.0137125   -0.0046930   -0.0341289    0.8725339    0.4555032    0.1766392
  -0.0159443   -0.0079118   -0.0535821    0.8548538   -0.2602017   -0.4489098
  -0.0210346    0.0019328   -0.0446479    0.2982796    0.9376446    0.1784710
  -0.0158449   -0.0018222   -0.0395944    0.5248881    0.8304390    0.1867179
  -0.0142290   -0.0029807   -0.0397317    0.8210853    0.5658859    0.0747810
  -0.0197404    0.0017600   -0.0531736    0.5421096    0.7474623   -0.3839496
   0.0105542    0.0066932   -0.0120904    0.7962908    0.4564025    0.3970111
   0.0104091    0.0037895   -0.0158415    0.6060377   -0.7912146    0.0818401
   0.0086435    0.0188596   -0.0463763    0.1346239    0.9889689   -0.0617814
   0.0069523    0.0167065   -0.0523070    0.0363333    0.7339821   -0.6781962
   0.0060958    0.0132545   -0.0547030   -0.3373116   -0.5630736   -0.7544329
   0.0086793    0.0066451   -0.0310908    0.1314513   -0.9419219   -0.3090366
   0.0109759    0.0043291   -0.0229850    0.3533124   -0.9348368   -0.0353630
  -0.0447142    0.0006980   -0.0467674   -0.5174147    0.7566099    0.3997792
  -0.0400997    0.0028228   -0.0481454   -0.1342102    0.7621172    0.6333759
  -0.0339475    0.0068143   -0.0524969    0.2140947    0.8062030    0.5515434
  -0.0402226    0.0061435   -0.0514716   -0.0007732    0.5807950    0.8140495
  -0.0260512    0.0054328   -0.0555348    0.4811281    0.8240932    0.2989751
  -0.0224705    0.0021423   -0.0570993    0.9155944    0.4013975    0.0238116
  -0.0482930   -0.0067956   -0.0376877   -0.5594770   -0.6622259   -0.4984399
  -0.0442377   -0.0117251   -0.0365935   -0.6735979   -0.6052938   -0.4241288
  -0.0386170   -0.0159741   -0.0398577   -0.7454839   -0.4980895   -0.4429002
  -0.0489193   -0.0045548   -0.0396332   -0.6474971   -0.5705202   -0.5052269
  -0.0353982   -0.0224121   -0.0399409   -0.6924763   -0.3184107   -0.6473725
  -0.0474222   -0.0011892   -0.0513758   -0.9684178   -0.1314261   -0.2118826
  -0.0303493   -0.0271540   -0.0428051   -0.6645860   -0.2384737   -0.7081354
  -0.0245715   -0.0309417   -0.0474696   -0.6052418   -0.3747223   -0.7023287
  -0.0194814   -0.0350692   -0.0479748   -0.1873576   -0.6678519   -0.7203270
  -0.0209885   -0.0264472   -0.0520251   -0.4205067   -0.2243955   -0.8791023
  -0.0200076   -0.0303495   -0.0507615   -0.4423801   -0.4526803   -0.7741966
  -0.0206461   -0.0210308   -0.0528013   -0.2783426    0.0150908   -0.9603633
  -0.0205869   -0.0178922   -0.0519189   -0.2066377    0.1799571   -0.9617257
  -0.0206967   -0.0159637   -0.0517508   -0.2498996   -0.1108852   -0.9619016
  -0.0202961   -0.0125720   -0.0530764   -0.0331396   -0.3576348   -0.9332733
  -0.0186838   -0.0077037   -0.0549365    0.1401727   -0.2418563   -0.9601339
  -0.0156299   -0.0045022   -0.0532248    0.9015021    0.0970872   -0.4217440
  -0.0158689   -0.0011775   -0.0452027    0.7275236    0.6845877   -0.0452659
  -0.0148208   -0.0022854   -0.0452834    0.8072206    0.5864424   -0.0669338
  -0.0161183   -0.0028944   -0.0535514    0.7735375    0.3617893   -0.5203347
  -0.0175967   -0.0048519   -0.0549654    0.3320270    0.0844266   -0.9394840
  -0.0216358   -0.0054154   -0.0546849    0.3660762   -0.2330840   -0.9009218
   0.0152190    0.0096254   -0.0236175    0.9193530    0.2043484    0.3362020
   0.0147421    0.0161918   -0.0431881    0.3230192    0.9086676    0.2645407
   0.0143087    0.0077111   -0.0226233    0.7331761   -0.6007868    0.3186032
   0.0173794    0.0163852   -0.0493518    0.7207595    0.6484252   -0.2450520
   0.0163239    0.0112257   -0.0519320    0.3785354   -0.3623778   -0.8517002
   0.0154330    0.0085486   -0.0375051   -0.2056939   -0.9446346   -0.2556472
   0.0134601    0.0053805   -0.0263377    0.1147277   -0.9926044   -0.0396733
  -0.0455279    0.0040197   -0.0510559   -0.5973813    0.4686474    0.6507727
  -0.0474194    0.0027169   -0.0540306   -0.9939477    0.0757358   -0.0795738
  -0.0302511    0.0074024   -0.0562118    0.3695455    0.8429618    0.3909622
  -0.0400206    0.0110961   -0.0541393    0.1939454    0.8828749    0.4276882
  -0.0452183    0.0097245   -0.0523126   -0.4755795    0.8047967    0.3551429
  -0.0231915    0.0063379   -0.0611984    0.6097629    0.6827731    0.4025048
  -0.0206256    0.0033351   -0.0618381    0.9354784   -0.0050999    0.3533470
  -0.0229018   -0.0002468   -0.0591595    0.8443654   -0.5077001   -0.1711365
  -0.0447945   -0.0081385   -0.0413974   -0.6861676   -0.6381464   -0.3492036
  -0.0398426   -0.0128594   -0.0425766   -0.6909963   -0.6072376   -0.3921564
  -0.0356420   -0.0187823   -0.0420892   -0.6199787   -0.4704310   -0.6279500
  -0.0298206   -0.0214277   -0.0447326   -0.6139715   -0.2724484   -0.7408177
  -0.0443629   -0.0026252   -0.0587852   -0.5871358   -0.6387262   -0.4972931
  -0.0412449   -0.0092055   -0.0472817   -0.6628038   -0.6809574   -0.3114293
  -0.0409076   -0.0004702   -0.0627289   -0.7327866   -0.3865420   -0.5600081
  -0.0246547   -0.0270165   -0.0484415   -0.6532025   -0.2003051   -0.7302084
  -0.0248786   -0.0215557   -0.0491511   -0.6463915   -0.1407991   -0.7499024
  -0.0249684   -0.0187030   -0.0494407   -0.5407884   -0.0056643   -0.8411396
  -0.0238819   -0.0130112   -0.0514269   -0.2223526   -0.4886244   -0.8436857
  -0.0238961   -0.0156956   -0.0497040   -0.4012792   -0.3390228   -0.8509046
  -0.0232768   -0.0089106   -0.0540066    0.0383612   -0.4345197   -0.8998450
  -0.0288518   -0.0072551   -0.0559638    0.1362053   -0.6676584   -0.7319019
  -0.0293814   -0.0050343   -0.0595936    0.3263794   -0.8983396   -0.2940450
   0.0191299    0.0116904   -0.0447601    0.9850014    0.1657304    0.0480181
   0.0167703    0.0084968   -0.0296068    0.9806510   -0.0714125    0.1822741
   0.0161829    0.0062714   -0.0288960    0.8155987   -0.5387501    0.2110620
   0.0188606    0.0091846   -0.0455782    0.6978197   -0.6707893   -0.2511759
  -0.0463718    0.0081644   -0.0561741   -0.9500851    0.2045140   -0.2356105
  -0.0388092    0.0024209   -0.0664657   -0.7932241   -0.3468469   -0.5004926
  -0.0263493    0.0081021   -0.0604058    0.3836562    0.8876593    0.2546938
  -0.0358809    0.0098308   -0.0588216    0.1845502    0.9790534    0.0859982
  -0.0395885    0.0106581   -0.0605584   -0.1795113    0.9461798   -0.2692944
  -0.0404976    0.0091500   -0.0633090   -0.5698752    0.6040761   -0.5570765
  -0.0211331    0.0064739   -0.0659166    0.6755039    0.7184530    0.1658908
  -0.0184595    0.0010148   -0.0663849    0.8528939   -0.2819855    0.4393816
  -0.0234301   -0.0006842   -0.0633887    0.6124735   -0.7734870    0.1630767
  -0.0356647   -0.0163378   -0.0439533   -0.5078139   -0.5925350   -0.6253218
  -0.0302873   -0.0188877   -0.0455114   -0.5347704   -0.3335098   -0.7763967
  -0.0374294   -0.0097868   -0.0512249   -0.2342113   -0.7974996   -0.5560031
  -0.0363573   -0.0135142   -0.0468699   -0.3532401   -0.7534251   -0.5545918
  -0.0384346   -0.0064616   -0.0571644   -0.1997830   -0.8363148   -0.5105529
  -0.0358151   -0.0052909   -0.0626392   -0.2279555   -0.9570623   -0.1790758
  -0.0332090   -0.0055839   -0.0673247   -0.4523047   -0.8763047   -0.1658627
  -0.0296508   -0.0156092   -0.0472621   -0.3834687   -0.4992464   -0.7769844
  -0.0293970   -0.0096536   -0.0540323   -0.0502469   -0.6994193   -0.7129432
  -0.0295197   -0.0132472   -0.0501842   -0.2181214   -0.7082629   -0.6714065
  -0.0288528   -0.0049794   -0.0649247    0.3197210   -0.9241926    0.2089176
  -0.0357595    0.0008165   -0.0713123   -0.7896253   -0.2595151   -0.5560070
  -0.0297914   -0.0068715   -0.0716647   -0.5484015   -0.8248876   -0.1371726
  -0.0255218    0.0081348   -0.0676243    0.3320393    0.9095342   -0.2499948
  -0.0298195    0.0101879   -0.0668873    0.1508702    0.9277788   -0.3412692
  -0.0335647    0.0094040   -0.0683042   -0.0722645    0.8464231   -0.5275848
  -0.0340079    0.0036142   -0.0730871   -0.4542777    0.4206046   -0.7853174
  -0.0307904   -0.0026545   -0.0757318   -0.7233884   -0.2400667   -0.6473618
  -0.0186361    0.0042307   -0.0700978    0.7240652    0.6844956    0.0848254
  -0.0165346   -0.0010405   -0.0707423    0.6356009   -0.2381312    0.7343739
  -0.0210568   -0.0003143   -0.0680012    0.4052232   -0.8091299    0.4255618
  -0.0278806   -0.0071555   -0.0699715    0.1637766   -0.8873088    0.4311152
  -0.0273043   -0.0080728   -0.0742236   -0.5708881   -0.8195388   -0.0494262
  -0.0256459   -0.0080841   -0.0723489   -0.0206767   -0.8158537    0.5778885
  -0.0209003    0.0047407   -0.0726419    0.2619995    0.9014321   -0.3446395
  -0.0256158    0.0054600   -0.0715580   -0.0027140    0.8008599   -0.5988456
  -0.0284322    0.0041094   -0.0725035   -0.0660309    0.7188130   -0.6920605
  -0.0295018    0.0018171   -0.0751441   -0.3058160    0.5007090   -0.8097945
  -0.0282369   -0.0044377   -0.0773181   -0.6909903   -0.2524790   -0.6773380
  -0.0250291   -0.0098347   -0.0757781   -0.5706719   -0.8207873   -0.0253337
  -0.0152649    0.0017746   -0.0741389    0.6356358    0.7333460    0.2411861
  -0.0191729   -0.0017101   -0.0706347    0.2726330   -0.5515392    0.7883373
  -0.0136674   -0.0026061   -0.0722204    0.4864508    0.0622191    0.8714898
  -0.0230188   -0.0093841   -0.0736383   -0.1017629   -0.7503811    0.6531251
  -0.0178743   -0.0050663   -0.0720694    0.1799348   -0.3916113    0.9023658
  -0.0133215    0.0001096   -0.0786053    0.4400997    0.8452929   -0.3029722
  -0.0163390    0.0003391   -0.0799265    0.0967764    0.8074537   -0.5819389
  -0.0196294   -0.0015237   -0.0821571   -0.1347458    0.6996946   -0.7016203
  -0.0219542   -0.0039526   -0.0831139   -0.4106212    0.4580120   -0.7884258
  -0.0220462   -0.0094548   -0.0850850   -0.7600403   -0.3173128   -0.5671431
  -0.0186842   -0.0136670   -0.0805088   -0.5275844   -0.8495003    0.0019850
